ply
format ascii 1.0
comment Generated by Swift PointCloudDemo generateNoisyCube function
comment Cube size: 10.0 units, Noise level: 0.5 units
comment Points per face: 100, Total faces: 6
element vertex 600
property float x
property float y
property float z
property uchar red
property uchar green
property uchar blue
property float intensity
end_header
2.081626 -5.119881 5.116612 255 107 107 1.011661
1.515825 2.896373 -5.080715 78 205 196 -0.008072
-0.469586 5.396419 -2.445345 69 183 209 0.255465
3.832574 -5.006758 -4.084658 249 202 36 0.091534
4.851609 2.543381 -3.419184 108 92 231 0.158082
-5.176405 -0.239746 -0.145452 160 231 229 0.485455
-1.210620 3.668280 5.056991 255 107 107 1.005699
-1.229942 3.008591 -4.752570 78 205 196 0.024743
-0.365048 4.595244 3.168078 69 183 209 0.816808
3.125591 -5.047132 -0.692783 249 202 36 0.430722
4.716733 -1.206187 -2.869263 108 92 231 0.213074
-4.907345 2.547377 -1.225919 160 231 229 0.377408
2.231900 3.496023 5.267798 255 107 107 1.026780
-5.035408 -3.615177 -4.941008 78 205 196 0.005899
-1.008744 4.621429 2.074702 69 183 209 0.707470
-4.702927 -5.218797 -2.392468 249 202 36 0.260753
5.083152 -1.000264 -2.186129 108 92 231 0.281387
-4.556929 2.849668 -5.399534 160 231 229 -0.039953
4.736923 0.887850 4.845694 255 107 107 0.984569
-1.598985 0.914998 -5.202552 78 205 196 -0.020255
1.570449 4.589032 4.260010 69 183 209 0.926001
3.642703 -5.414075 -1.369053 249 202 36 0.363095
5.339268 2.260690 -4.441991 108 92 231 0.055801
-4.580858 -3.612227 -3.338021 160 231 229 0.166198
5.120133 0.310881 5.452715 255 107 107 1.045272
-0.273603 -2.272973 -5.047644 78 205 196 -0.004764
1.476680 5.082358 -2.627337 69 183 209 0.237266
-5.051633 -4.657276 4.599752 249 202 36 0.959975
4.951584 2.728471 4.443166 108 92 231 0.944317
-4.827763 -1.202218 1.628988 160 231 229 0.662899
-1.567867 -3.868171 4.913304 255 107 107 0.991330
-4.228292 2.501415 -5.348814 78 205 196 -0.034881
4.187639 4.793623 -1.643055 69 183 209 0.335694
-2.151060 -5.407857 -4.702969 249 202 36 0.029703
5.440464 4.218361 5.192048 108 92 231 1.019205
-4.615611 -2.507547 4.987756 160 231 229 0.998776
-0.877125 -0.349966 5.475669 255 107 107 1.047567
2.918058 -4.450039 -5.029879 78 205 196 -0.002988
1.817691 5.489914 -1.523952 69 183 209 0.347605
-0.309104 -5.496306 -0.434969 249 202 36 0.456503
5.010884 0.120768 -4.691526 108 92 231 0.030847
-5.038900 0.635204 -3.494968 160 231 229 0.150503
-0.487200 3.848651 5.285613 255 107 107 1.028561
0.424771 2.786045 -5.171821 78 205 196 -0.017182
-3.530381 5.417034 -2.922952 69 183 209 0.207705
-1.470584 -4.569462 2.160818 249 202 36 0.716082
4.868402 0.313173 -4.402215 108 92 231 0.059778
-4.912630 -4.349308 -3.657300 160 231 229 0.134270
5.274371 -2.125671 4.833933 255 107 107 0.983393
-4.388158 -3.674313 -5.243290 78 205 196 -0.024329
-4.005154 5.000097 -1.715646 69 183 209 0.328435
3.171067 -5.342494 0.750898 249 202 36 0.575090
5.441449 -0.456179 -3.208236 108 92 231 0.179176
-5.158407 0.290992 -3.219938 160 231 229 0.178006
3.604986 -2.299609 5.086673 255 107 107 1.008667
-4.123783 4.337866 -4.719335 78 205 196 0.028067
-1.766148 5.273465 -0.664795 69 183 209 0.433520
-3.022248 -5.333618 -1.784126 249 202 36 0.321587
4.639674 2.342541 1.357619 108 92 231 0.635762
-4.707907 -1.568883 4.629516 160 231 229 0.962952
-0.450655 -3.008563 4.831106 255 107 107 0.983111
3.951639 4.064353 -5.351860 78 205 196 -0.035186
0.056998 5.041821 -1.613255 69 183 209 0.338675
0.621804 -5.020247 -2.858227 249 202 36 0.214177
5.294129 -4.834652 3.044626 108 92 231 0.804463
-4.823501 -2.562881 0.876616 160 231 229 0.587662
3.002803 1.741001 5.032135 255 107 107 1.003213
5.050054 3.552218 -5.115306 78 205 196 -0.011531
0.129227 4.843493 2.335916 69 183 209 0.733592
-2.736208 -5.366261 -2.801210 249 202 36 0.219879
4.713355 1.172643 -4.879390 108 92 231 0.012061
-5.388504 -2.659434 -0.053196 160 231 229 0.494680
3.175046 1.214339 5.381820 255 107 107 1.038182
2.730910 -1.831039 -4.803788 78 205 196 0.019621
4.335077 4.664021 3.529400 69 183 209 0.852940
4.786665 -4.718245 1.026939 249 202 36 0.602694
5.109023 1.429282 -0.666117 108 92 231 0.433388
-5.227162 -0.698069 2.550298 160 231 229 0.755030
-0.126683 -5.448519 4.585771 255 107 107 0.958577
-3.442498 4.653053 -4.982462 78 205 196 0.001754
3.376741 5.387299 0.713048 69 183 209 0.571305
0.993834 -5.093322 3.512412 249 202 36 0.851241
5.275919 3.990486 -1.868855 108 92 231 0.313115
-4.902194 0.940131 -2.823418 160 231 229 0.217658
4.243488 3.583390 5.033351 255 107 107 1.003335
-3.887118 -3.031415 -4.633426 78 205 196 0.036657
3.078260 4.867721 0.797251 69 183 209 0.579725
-4.953154 -5.398945 2.096671 249 202 36 0.709667
4.576224 2.931863 -3.971796 108 92 231 0.102820
-4.868390 -2.664268 2.309456 160 231 229 0.730946
-0.094001 0.012877 5.171325 255 107 107 1.017133
-1.779955 0.243672 -5.286901 78 205 196 -0.028690
1.316140 4.705360 3.044673 69 183 209 0.804467
-0.832623 -4.892013 1.652082 249 202 36 0.665208
5.019828 2.342231 -2.365849 108 92 231 0.263415
-5.327321 0.597407 -4.245464 160 231 229 0.075454
2.203530 3.186801 4.746459 255 107 107 0.974646
1.134887 -1.172526 -4.582228 78 205 196 0.041777
0.534243 5.292005 -4.341508 69 183 209 0.065849
2.560646 -5.360877 2.513912 249 202 36 0.751391
5.084215 -4.391228 -3.520800 108 92 231 0.147920
-5.198269 3.170552 0.983230 160 231 229 0.598323
-1.791146 -2.574817 5.484039 255 107 107 1.048404
-0.881175 -3.817621 -5.292804 78 205 196 -0.029280
-1.743838 4.636914 -1.670029 69 183 209 0.332997
-3.418369 -5.485110 -1.814174 249 202 36 0.318583
5.437132 -0.096961 -4.566261 108 92 231 0.043374
-4.536422 -0.041136 -4.611036 160 231 229 0.038896
1.191615 -3.038964 4.772091 255 107 107 0.977209
-1.543209 1.019372 -4.821524 78 205 196 0.017848
-2.789279 5.442020 0.141069 69 183 209 0.514107
0.342237 -5.291654 -0.537060 249 202 36 0.446294
4.526560 2.407698 1.390142 108 92 231 0.639014
-4.853635 2.326734 1.873965 160 231 229 0.687396
2.178112 3.615618 5.086337 255 107 107 1.008634
-0.382439 4.107545 -4.783119 78 205 196 0.021688
5.091135 5.492975 -4.654541 69 183 209 0.034546
-1.612152 -5.185030 2.876773 249 202 36 0.787677
5.277686 2.841771 -3.595621 108 92 231 0.140438
-4.801365 -3.355364 -4.333465 160 231 229 0.066654
1.007263 -3.003861 5.322148 255 107 107 1.032215
4.235113 2.818992 -5.336485 78 205 196 -0.033649
-0.596032 5.273390 -0.817523 69 183 209 0.418248
-1.838832 -4.632436 2.519750 249 202 36 0.751975
4.622395 -0.018220 -0.883280 108 92 231 0.411672
-5.495664 4.201235 -0.934086 160 231 229 0.406591
-0.757024 -4.421294 4.942861 255 107 107 0.994286
-3.578791 2.338760 -4.834718 78 205 196 0.016528
3.983351 4.612425 2.466480 69 183 209 0.746648
2.614411 -5.269287 -0.248072 249 202 36 0.475193
4.967824 2.503494 -0.927602 108 92 231 0.407240
-5.243828 -5.319001 -2.220522 160 231 229 0.277948
-4.806527 -0.586053 5.168273 255 107 107 1.016827
-1.460882 -0.235114 -4.523109 78 205 196 0.047689
3.531408 5.103317 -4.917165 69 183 209 0.008284
-2.441955 -5.223391 2.465852 249 202 36 0.746585
4.521990 -3.791089 1.018167 108 92 231 0.601817
-4.568812 4.321043 2.586642 160 231 229 0.758664
2.278518 2.883704 5.351116 255 107 107 1.035112
-4.513564 -0.438791 -5.220418 78 205 196 -0.022042
2.539078 4.589750 1.210407 69 183 209 0.621041
3.984052 -5.396031 2.127828 249 202 36 0.712783
5.238442 -2.798689 -0.034647 108 92 231 0.496535
-5.177166 4.547854 4.152304 160 231 229 0.915230
2.128652 3.151610 5.036163 255 107 107 1.003616
1.140321 0.358035 -4.598547 78 205 196 0.040145
3.603205 5.423825 3.574124 69 183 209 0.857412
0.808187 -5.108623 -1.939307 249 202 36 0.306069
4.855481 -1.153793 1.369350 108 92 231 0.636935
-5.068158 -3.072573 1.260584 160 231 229 0.626058
-2.853667 -2.542747 5.305540 255 107 107 1.030554
4.443840 -1.775306 -4.756936 78 205 196 0.024306
-1.555048 4.888202 2.996551 69 183 209 0.799655
-1.550843 -4.974099 -0.117662 249 202 36 0.488234
4.516682 0.014688 -0.231344 108 92 231 0.476866
-5.343417 -0.049572 -0.272386 160 231 229 0.472761
4.485898 4.163801 5.279828 255 107 107 1.027983
3.812723 -4.634355 -5.000297 78 205 196 -0.000030
-3.971483 4.633001 5.110367 69 183 209 1.011037
-2.099210 -5.173686 0.298952 249 202 36 0.529895
4.902086 -0.982155 4.036144 108 92 231 0.903614
-4.867520 0.716500 -2.241267 160 231 229 0.275873
-0.293375 5.112725 5.301423 255 107 107 1.030142
2.949480 1.833750 -5.131579 78 205 196 -0.013158
-1.577216 5.480846 -2.480092 69 183 209 0.251991
1.536322 -5.069296 3.407520 249 202 36 0.840752
5.100328 2.147036 4.748971 108 92 231 0.974897
-5.152215 2.118890 -3.513375 160 231 229 0.148663
4.508639 1.486214 4.714700 255 107 107 0.971470
0.567918 0.650290 -4.657895 78 205 196 0.034211
3.823956 4.782992 -2.774966 69 183 209 0.222503
2.624744 -5.357792 4.626452 249 202 36 0.962645
5.317279 -0.924841 3.444614 108 92 231 0.844461
-4.594842 -3.035508 0.641331 160 231 229 0.564133
-0.164078 2.597230 5.417922 255 107 107 1.041792
-1.553239 -3.878948 -4.507163 78 205 196 0.049284
0.933835 5.374742 3.944592 69 183 209 0.894459
3.155621 -5.457423 -0.838353 249 202 36 0.416165
5.348625 3.347383 3.542316 108 92 231 0.854232
-4.828172 1.779196 1.986092 160 231 229 0.698609
-4.410913 -1.379240 4.583531 255 107 107 0.958353
4.767375 -2.020002 -4.755345 78 205 196 0.024466
0.542077 5.442457 3.457740 69 183 209 0.845774
2.433262 -5.438606 2.433265 249 202 36 0.743327
4.508170 2.043056 1.831004 108 92 231 0.683100
-4.897217 -0.251452 1.365516 160 231 229 0.636552
0.083321 -0.777666 5.147656 255 107 107 1.014766
1.831200 -4.716145 -4.953821 78 205 196 0.004618
-3.683496 5.057722 -1.121884 69 183 209 0.387812
-0.092828 -5.067906 2.747136 249 202 36 0.774714
5.398034 -4.908022 1.904499 108 92 231 0.690450
-4.590881 -1.695134 4.942327 160 231 229 0.994233
1.739697 0.295632 5.331571 255 107 107 1.033157
-0.081490 -0.291137 -5.225967 78 205 196 -0.022597
-4.380739 4.504888 -3.830086 69 183 209 0.116991
-1.284415 -5.149702 2.986779 249 202 36 0.798678
5.384404 -0.829235 -4.567312 108 92 231 0.043269
-5.451114 -2.906028 0.712579 160 231 229 0.571258
2.567930 -3.827657 4.561260 255 107 107 0.956126
3.526279 -1.097472 -5.064871 78 205 196 -0.006487
-0.658250 5.154303 -4.988681 69 183 209 0.001132
1.646559 -5.137695 1.247990 249 202 36 0.624799
4.776932 -1.397434 1.333474 108 92 231 0.633347
-5.150635 -2.444013 -1.132629 160 231 229 0.386737
-2.424882 -1.894315 4.747411 255 107 107 0.974741
-5.170626 2.335662 -4.958157 78 205 196 0.004184
4.808164 4.858493 -1.346677 69 183 209 0.365332
-4.231676 -4.661065 -2.666823 249 202 36 0.233318
4.552180 3.256309 -0.869679 108 92 231 0.413032
-5.145912 -1.914026 0.656456 160 231 229 0.565646
-1.104040 3.923972 5.384501 255 107 107 1.038450
-1.182570 3.829407 -4.893326 78 205 196 0.010667
0.011078 5.439300 4.239141 69 183 209 0.923914
-0.287535 -4.581299 0.787634 249 202 36 0.578763
5.203905 2.370676 -1.227282 108 92 231 0.377272
-4.809201 4.091245 2.897553 160 231 229 0.789755
-2.054134 -1.077250 5.100440 255 107 107 1.010044
3.089328 0.844468 -5.010406 78 205 196 -0.001041
-1.988835 5.117210 -1.071673 69 183 209 0.392833
-2.537528 -4.945076 -1.921152 249 202 36 0.307885
4.709484 0.703231 -0.604654 108 92 231 0.439535
-5.208980 -3.797286 4.834889 160 231 229 0.983489
-0.459175 3.953592 4.972590 255 107 107 0.997259
2.969346 0.454893 -4.613841 78 205 196 0.038616
-0.448939 4.912011 -3.296090 69 183 209 0.170391
-2.299117 -4.990872 -4.056055 249 202 36 0.094394
5.133287 2.828637 0.912381 108 92 231 0.591238
-4.748457 0.124975 0.924906 160 231 229 0.592491
-1.450246 2.943674 5.127666 255 107 107 1.012767
1.213111 0.521993 -5.352263 78 205 196 -0.035226
0.374697 4.526877 2.560122 69 183 209 0.756012
-0.078967 -4.578757 3.398763 249 202 36 0.839876
4.531324 -3.254327 4.019306 108 92 231 0.901931
-4.967273 2.455978 2.460962 160 231 229 0.746096
4.358218 0.207161 5.314660 255 107 107 1.031466
-1.630727 1.039794 -5.118096 78 205 196 -0.011810
-1.286185 5.333337 -3.168653 69 183 209 0.183135
1.659794 -5.091142 -0.869271 249 202 36 0.413073
4.622002 -1.409922 1.359392 108 92 231 0.635939
-5.331431 -3.676105 4.597561 160 231 229 0.959756
0.108672 1.902561 5.355554 255 107 107 1.035555
-1.401634 3.690440 -5.169238 78 205 196 -0.016924
3.430091 5.462784 -5.055719 69 183 209 -0.005572
4.837875 -4.790470 3.462966 249 202 36 0.846297
4.806985 4.597009 0.126295 108 92 231 0.512629
-4.755330 2.329240 -1.332225 160 231 229 0.366778
2.857734 3.521681 5.341794 255 107 107 1.034179
-3.291602 0.396674 -4.802117 78 205 196 0.019788
0.177153 5.492652 0.145722 69 183 209 0.514572
2.256509 -4.885546 4.035417 249 202 36 0.903542
5.275190 0.074243 1.644744 108 92 231 0.664474
-4.755390 4.096406 -2.352543 160 231 229 0.264746
-3.242829 1.027870 5.053229 255 107 107 1.005323
1.631370 0.317628 -5.423252 78 205 196 -0.042325
2.319653 5.491419 0.830550 69 183 209 0.583055
5.186655 -5.177589 -0.092617 249 202 36 0.490738
5.391260 3.551901 3.555043 108 92 231 0.855504
-4.900754 0.608273 -3.853654 160 231 229 0.114635
0.019719 0.738255 5.309563 255 107 107 1.030956
2.736153 -0.886036 -4.911843 78 205 196 0.008816
-0.721868 4.963497 -3.107400 69 183 209 0.189260
-3.080623 -4.879206 -4.216735 249 202 36 0.078326
5.471751 -0.315622 -1.985952 108 92 231 0.301405
-5.092465 4.516127 2.443516 160 231 229 0.744352
0.655178 0.735795 4.949152 255 107 107 0.994915
-1.527550 0.161291 -4.625801 78 205 196 0.037420
-4.997657 5.057503 3.624064 69 183 209 0.862406
3.796194 -5.393530 -0.290554 249 202 36 0.470945
4.829744 0.914378 -1.219243 108 92 231 0.378076
-4.778752 2.304258 -2.244068 160 231 229 0.275593
1.837471 -3.908363 4.682847 255 107 107 0.968285
-2.586621 0.914565 -4.564181 78 205 196 0.043582
4.485193 4.881033 1.845304 69 183 209 0.684530
0.431633 -5.406861 -4.342603 249 202 36 0.065740
4.714535 2.748057 4.044428 108 92 231 0.904443
-4.848900 4.378095 -4.921549 160 231 229 0.007845
0.238851 -1.809168 4.867236 255 107 107 0.986724
-1.461234 -0.002657 -5.246433 78 205 196 -0.024643
-2.946053 5.374579 4.874343 69 183 209 0.987434
-3.075736 -4.834477 0.637748 249 202 36 0.563775
5.214468 -1.903359 -4.867751 108 92 231 0.013225
-5.429929 -3.385817 -1.877836 160 231 229 0.312216
4.682413 -3.514713 4.540603 255 107 107 0.954060
2.842150 -0.772222 -4.849864 78 205 196 0.015014
-2.103921 5.063599 -0.258065 69 183 209 0.474193
-2.221702 -4.573455 1.286476 249 202 36 0.628648
4.722939 -4.122853 -1.433584 108 92 231 0.356642
-4.775406 -0.519784 -0.765908 160 231 229 0.423409
-5.077250 -2.868745 4.939893 255 107 107 0.993989
-4.432786 -2.285599 -4.843725 78 205 196 0.015628
-1.596243 4.627090 0.002930 69 183 209 0.500293
-1.576215 -4.613931 -4.912549 249 202 36 0.008745
5.303582 -3.971732 -4.302317 108 92 231 0.069768
-4.767785 3.471956 -4.704213 160 231 229 0.029579
0.518761 1.838798 4.865515 255 107 107 0.986551
3.932902 0.654252 -5.427891 78 205 196 -0.042789
-3.442403 4.880417 -4.411183 69 183 209 0.058882
3.354422 -5.075524 0.270226 249 202 36 0.527023
5.386253 -5.020945 1.957474 108 92 231 0.695747
-5.022643 -2.699552 -1.460088 160 231 229 0.353991
-1.609433 -2.703138 4.798833 255 107 107 0.979883
5.070803 -4.316051 -5.421640 78 205 196 -0.042164
-1.022870 5.185165 0.855990 69 183 209 0.585599
-4.471611 -4.931447 -1.778004 249 202 36 0.322200
5.296125 -0.387920 3.227580 108 92 231 0.822758
-4.820858 -3.607251 -2.598967 160 231 229 0.240103
3.539921 -4.130948 5.198398 255 107 107 1.019840
-0.236835 -2.748969 -5.165187 78 205 196 -0.016519
-5.106646 4.700299 -4.216910 69 183 209 0.078309
2.518313 -5.205238 -0.042930 249 202 36 0.495707
5.240048 -2.957912 0.709316 108 92 231 0.570932
-5.174343 2.167002 0.032196 160 231 229 0.503220
-2.482383 1.033479 4.661670 255 107 107 0.966167
-3.343528 3.537063 -5.368791 78 205 196 -0.036879
0.689994 4.580881 -0.687594 69 183 209 0.431241
1.773138 -5.388710 0.402440 249 202 36 0.540244
4.842914 1.080392 3.965407 108 92 231 0.896541
-4.711506 -3.756668 -3.382272 160 231 229 0.161773
-1.961382 2.990923 5.170496 255 107 107 1.017050
0.547276 4.180568 -4.835233 78 205 196 0.016477
-2.797927 4.813408 -5.079447 69 183 209 -0.007945
3.180922 -4.586593 0.115309 249 202 36 0.511531
5.178657 -5.281379 3.169036 108 92 231 0.816904
-4.865442 -3.846437 -3.363878 160 231 229 0.163612
4.761735 0.934484 5.170981 255 107 107 1.017098
-1.943414 1.097493 -5.013569 78 205 196 -0.001357
-1.574498 5.070136 -3.921318 69 183 209 0.107868
-1.751781 -4.775827 -0.648952 249 202 36 0.435105
4.897932 0.448056 4.157125 108 92 231 0.915713
-5.229379 -2.954431 -2.465563 160 231 229 0.253444
1.650431 2.290542 5.429114 255 107 107 1.042911
-1.897326 -2.824405 -4.885546 78 205 196 0.011445
1.217441 4.522282 2.867244 69 183 209 0.786724
1.949433 -4.532174 3.707927 249 202 36 0.870793
5.331835 3.007694 -3.186575 108 92 231 0.181343
-5.441767 3.695692 -1.721921 160 231 229 0.327808
-3.031459 3.170999 5.166924 255 107 107 1.016692
-0.058176 4.550903 -4.906615 78 205 196 0.009339
5.412059 4.574036 -0.827655 69 183 209 0.417235
0.769865 -5.093974 -3.615047 249 202 36 0.138495
4.888681 -3.923674 2.097054 108 92 231 0.709705
-5.380417 2.946619 -3.359141 160 231 229 0.164086
-4.265745 -3.692189 4.879963 255 107 107 0.987996
-3.458991 -0.476025 -5.152687 78 205 196 -0.015269
-2.562718 5.479766 2.964466 69 183 209 0.796447
-1.851435 -5.158149 -2.056719 249 202 36 0.294328
4.987882 -2.506241 -2.929194 108 92 231 0.207081
-5.286290 5.070974 1.992675 160 231 229 0.699268
-4.803531 -3.461562 4.939628 255 107 107 0.993963
3.569002 4.704127 -4.923296 78 205 196 0.007670
-3.365296 4.913486 3.579137 69 183 209 0.857914
1.722116 -5.352023 -3.064732 249 202 36 0.193527
4.627478 -4.040900 -3.915083 108 92 231 0.108492
-4.694427 0.296447 -2.868528 160 231 229 0.213147
-2.587243 2.364179 5.013815 255 107 107 1.001382
-4.990590 0.672453 -4.534884 78 205 196 0.046512
3.484881 4.726687 0.416119 69 183 209 0.541612
0.843162 -5.414395 0.768770 249 202 36 0.576877
4.666491 -2.683802 4.401844 108 92 231 0.940184
-5.291417 0.656518 -1.429172 160 231 229 0.357083
-0.918891 1.078290 4.627485 255 107 107 0.962748
4.162107 -3.430820 -4.565716 78 205 196 0.043428
0.328992 4.541048 0.729555 69 183 209 0.572956
4.343258 -5.209110 -3.090887 249 202 36 0.190911
4.784017 4.145854 -1.654780 108 92 231 0.334522
-5.269391 1.736399 4.387199 160 231 229 0.938720
-0.424084 4.001884 5.177933 255 107 107 1.017793
2.875036 -5.133660 -4.752336 78 205 196 0.024766
0.341867 4.514270 -3.033243 69 183 209 0.196676
0.817541 -4.830066 1.433627 249 202 36 0.643363
4.566759 0.769602 2.619645 108 92 231 0.761965
-5.025967 -3.818548 0.822884 160 231 229 0.582288
-0.456330 -2.155430 4.816028 255 107 107 0.981603
3.563160 4.538333 -5.246513 78 205 196 -0.024651
3.522776 4.956421 1.498028 69 183 209 0.649803
-3.906422 -4.673029 -3.487621 249 202 36 0.151238
4.603013 -0.726411 2.399722 108 92 231 0.739972
-4.660819 -3.028402 3.689967 160 231 229 0.868997
1.074261 -2.457405 4.804479 255 107 107 0.980448
0.909072 0.227229 -4.511907 78 205 196 0.048809
1.221600 4.657926 -1.318014 69 183 209 0.368199
-0.022290 -5.404457 -0.562793 249 202 36 0.443721
4.600185 -4.195118 -1.696663 108 92 231 0.330334
-4.592461 -1.249497 3.740185 160 231 229 0.874019
-0.665307 1.868842 4.529381 255 107 107 0.952938
1.039812 0.073711 -5.134678 78 205 196 -0.013468
0.755414 4.979229 -2.998800 69 183 209 0.200120
1.796063 -5.025329 1.615093 249 202 36 0.661509
5.219615 -0.945467 -3.990247 108 92 231 0.100975
-5.183936 0.155462 0.060890 160 231 229 0.506089
-4.243235 5.039359 5.164549 255 107 107 1.016455
-2.534537 -3.979990 -5.466339 78 205 196 -0.046634
0.763075 4.516713 0.007978 69 183 209 0.500798
-4.371233 -5.298175 4.301811 249 202 36 0.930181
5.495010 1.954738 0.711728 108 92 231 0.571173
-4.558149 3.524661 -0.924141 160 231 229 0.407586
-2.354871 -0.931515 4.619915 255 107 107 0.961991
-1.217170 1.913064 -4.786215 78 205 196 0.021378
1.065963 4.906544 0.875338 69 183 209 0.587534
3.808187 -5.271039 -5.105766 249 202 36 -0.010577
5.087922 0.893275 -3.653648 108 92 231 0.134635
-4.724006 -3.514640 -4.813386 160 231 229 0.018661
-0.753341 -0.298420 5.094518 255 107 107 1.009452
3.539800 -4.258821 -5.155758 78 205 196 -0.015576
-2.573283 5.110899 0.702704 69 183 209 0.570270
-2.651832 -4.631687 -3.665509 249 202 36 0.133449
5.492438 3.398274 0.388880 108 92 231 0.538888
-4.961629 0.593084 -3.922213 160 231 229 0.107779
-1.321179 -4.587176 4.705142 255 107 107 0.970514
2.062411 -1.543888 -5.443945 78 205 196 -0.044394
0.925361 4.711690 -1.793243 69 183 209 0.320676
0.161346 -5.464385 -4.844562 249 202 36 0.015544
4.732081 -3.424446 3.318832 108 92 231 0.831883
-5.419618 -3.072120 -2.714823 160 231 229 0.228518
-4.104541 3.316110 5.337692 255 107 107 1.033769
1.059035 -0.788163 -4.946001 78 205 196 0.005400
4.511354 4.922113 1.009768 69 183 209 0.600977
2.196382 -4.875380 4.407419 249 202 36 0.940742
5.379254 -2.533171 -0.038952 108 92 231 0.496105
-5.026474 -0.004255 -2.806289 160 231 229 0.219371
1.891111 1.820402 5.386573 255 107 107 1.038657
-4.845706 -1.527370 -5.133546 78 205 196 -0.013355
4.300158 5.257825 2.622275 69 183 209 0.762228
3.796364 -5.161303 3.412465 249 202 36 0.841246
5.489727 4.014170 -3.434853 108 92 231 0.156515
-5.327446 4.289588 -3.059735 160 231 229 0.194026
1.971331 2.084568 5.486764 255 107 107 1.048676
-5.228723 0.204956 -5.280460 78 205 196 -0.028046
0.412999 5.202694 2.041290 69 183 209 0.704129
-3.582845 -5.118947 4.354713 249 202 36 0.935471
4.805186 2.847906 -3.256489 108 92 231 0.174351
-5.406418 -3.200921 -1.149660 160 231 229 0.385034
-3.917976 4.906456 4.921625 255 107 107 0.992162
2.397580 -4.240358 -4.948450 78 205 196 0.005155
5.064402 4.535749 -4.250495 69 183 209 0.074950
4.340665 -4.673301 0.904206 249 202 36 0.590421
4.829561 -2.559834 3.871170 108 92 231 0.887117
-5.320212 -2.058094 -2.888976 160 231 229 0.211102
-0.973566 3.071377 4.868572 255 107 107 0.986857
4.729334 2.664787 -4.916456 78 205 196 0.008354
0.516793 5.215883 2.498111 69 183 209 0.749811
-4.102343 -4.974958 -3.414115 249 202 36 0.158589
5.498682 0.423082 -4.703974 108 92 231 0.029603
-4.983552 0.616653 -2.818831 160 231 229 0.218117
-2.626233 -2.204182 5.002114 255 107 107 1.000211
4.667299 2.472812 -5.059049 78 205 196 -0.005905
-0.401741 5.012308 5.068552 69 183 209 1.006855
4.454378 -5.374678 3.968403 249 202 36 0.896840
5.039315 0.013466 -2.264776 108 92 231 0.273522
-5.394209 -3.120953 4.704930 160 231 229 0.970493
-2.275803 -4.011399 5.145719 255 107 107 1.014572
1.103434 -0.317374 -4.850550 78 205 196 0.014945
-3.143934 4.581280 3.466475 69 183 209 0.846647
-4.192535 -5.290526 -2.290145 249 202 36 0.270985
4.696250 1.124004 -3.899553 108 92 231 0.110045
-4.975778 -1.979491 2.743650 160 231 229 0.774365
1.226678 -4.413157 5.306203 255 107 107 1.030620
-3.084968 2.674655 -4.525190 78 205 196 0.047481
-4.610297 4.826993 2.127743 69 183 209 0.712774
-3.909536 -5.303403 1.052549 249 202 36 0.605255
5.126839 4.219019 -0.802480 108 92 231 0.419752
-5.064039 -1.009230 -4.117116 160 231 229 0.088288
-0.442516 -3.864271 4.662465 255 107 107 0.966246
0.308802 -1.557744 -4.574639 78 205 196 0.042536
1.783710 5.452169 2.586028 69 183 209 0.758603
3.870051 -5.143152 1.732669 249 202 36 0.673267
4.843740 -0.021684 -3.650237 108 92 231 0.134976
-4.755616 -4.278920 -2.656919 160 231 229 0.234308
-0.073516 -0.548577 5.162024 255 107 107 1.016202
5.228144 -1.540097 -5.340543 78 205 196 -0.034054
3.908747 4.956165 -3.219620 69 183 209 0.178038
1.658612 -5.058820 4.524599 249 202 36 0.952460
4.974472 -2.621654 -3.825782 108 92 231 0.117422
-5.219586 -2.540608 2.436669 160 231 229 0.743667
-0.959807 -4.822522 4.579393 255 107 107 0.957939
3.297753 0.654304 -5.079245 78 205 196 -0.007924
2.840934 4.742614 1.481437 69 183 209 0.648144
-2.585555 -4.928555 -1.686045 249 202 36 0.331396
4.631676 -2.026550 -4.253811 108 92 231 0.074619
-4.543231 2.886350 -4.470971 160 231 229 0.052903
2.776093 0.394621 5.301299 255 107 107 1.030130
-3.238726 3.712550 -5.183454 78 205 196 -0.018345
-2.600279 5.421453 2.257040 69 183 209 0.725704
4.653967 -5.091222 -2.354350 249 202 36 0.264565
5.295357 -2.431864 -0.269123 108 92 231 0.473088
-5.141709 3.220772 0.095120 160 231 229 0.509512
-3.911809 0.656137 5.002947 255 107 107 1.000295
-4.010597 -2.056844 -4.529884 78 205 196 0.047012
3.633276 4.900311 -0.972852 69 183 209 0.402715
4.970504 -4.855380 -1.746284 249 202 36 0.325372
4.626333 -3.857488 -1.348317 108 92 231 0.365168
-4.855129 -0.944539 -3.592092 160 231 229 0.140791
4.787796 -1.428354 4.897893 255 107 107 0.989789
-3.226419 5.332089 -5.485821 78 205 196 -0.048582
-5.013307 4.965516 3.544702 69 183 209 0.854470
4.119215 -5.338401 -4.108341 249 202 36 0.089166
5.468007 -2.510318 1.692660 108 92 231 0.669266
-4.754001 2.667857 2.538551 160 231 229 0.753855
2.511316 -0.880663 5.337824 255 107 107 1.033782
3.463499 -3.570197 -5.232478 78 205 196 -0.023248
-0.462516 4.574068 4.585362 69 183 209 0.958536
2.274291 -5.313232 -0.903180 249 202 36 0.409682
4.798125 5.400590 2.415272 108 92 231 0.741527
-5.354858 2.419222 3.430248 160 231 229 0.843025
-3.362651 1.585380 4.632068 255 107 107 0.963207
-3.518967 -1.398787 -5.197261 78 205 196 -0.019726
2.807417 5.489767 -1.422078 69 183 209 0.357792
-4.563341 -4.508714 -3.801821 249 202 36 0.119818
4.598239 -0.478243 -5.029075 108 92 231 -0.002908
-5.293063 -0.200839 -5.246039 160 231 229 -0.024604
-1.082565 -1.426972 4.669784 255 107 107 0.966978
0.139864 -3.932923 -5.431889 78 205 196 -0.043189
-0.590896 4.852867 0.534423 69 183 209 0.553442
3.814801 -4.674650 -1.308872 249 202 36 0.369113
5.209251 -0.294081 -4.701937 108 92 231 0.029806
-5.451062 -1.526080 4.472222 160 231 229 0.947222
0.098676 1.108762 5.140580 255 107 107 1.014058
-2.410771 -0.890574 -5.291930 78 205 196 -0.029193
-2.608004 4.948161 -0.589942 69 183 209 0.441006
4.359495 -5.407345 1.746209 249 202 36 0.674621
5.052673 -2.260281 -4.422435 108 92 231 0.057756
-5.062658 0.940761 0.567470 160 231 229 0.556747
3.685889 -3.419603 4.954393 255 107 107 0.995439
0.774929 3.187958 -5.468796 78 205 196 -0.046880
3.719125 5.479406 0.000172 69 183 209 0.500017
1.730514 -4.886517 4.060891 249 202 36 0.906089
4.527609 1.814058 4.736611 108 92 231 0.973661
-4.613702 -3.966599 -0.407231 160 231 229 0.459277
-2.262926 -1.912464 5.271309 255 107 107 1.027131
2.424377 -2.994555 -4.734186 78 205 196 0.026581
-3.171836 4.855075 0.206218 69 183 209 0.520622
1.693140 -5.212248 -3.132927 249 202 36 0.186707
4.999405 2.971257 -1.828536 108 92 231 0.317146
-4.581164 3.528812 3.592182 160 231 229 0.859218
0.212307 -4.792685 5.307720 255 107 107 1.030772
4.345905 -2.284266 -5.361007 78 205 196 -0.036101
-2.241085 4.767353 -1.417897 69 183 209 0.358210
3.314266 -5.360088 -1.019437 249 202 36 0.398056
5.234296 0.383314 -4.171359 108 92 231 0.082864
-5.216582 1.475770 1.267445 160 231 229 0.626745
-1.951623 -3.378270 5.297927 255 107 107 1.029793
0.981972 -1.633108 -4.750622 78 205 196 0.024938
2.357689 5.329775 -4.713108 69 183 209 0.028689
1.619630 -5.489372 -1.497957 249 202 36 0.350204
5.178797 -1.650868 -2.665506 108 92 231 0.233449
-5.257796 0.751054 -2.668514 160 231 229 0.233149
1.530952 4.366172 5.247395 255 107 107 1.024739
2.016804 -1.278820 -4.759371 78 205 196 0.024063
1.159844 4.543060 2.529740 69 183 209 0.752974
2.560646 -4.771066 -3.185910 249 202 36 0.181409
4.977861 0.627761 -4.398661 108 92 231 0.060134
-4.563192 -2.299801 0.808995 160 231 229 0.580899
-4.104404 5.294810 4.664460 255 107 107 0.966446
-0.032617 -3.553308 -4.649995 78 205 196 0.035000
1.321818 5.017401 -2.164626 69 183 209 0.283537
-3.210257 -4.738834 0.438295 249 202 36 0.543829
4.591870 1.912003 4.463046 108 92 231 0.946305
-4.806838 -0.576090 -2.468753 160 231 229 0.253125
-4.041676 -1.086233 5.302749 255 107 107 1.030275
1.540148 -3.860255 -5.079857 78 205 196 -0.007986
-2.309109 5.075565 -0.916733 69 183 209 0.408327
2.397790 -4.845200 2.006395 249 202 36 0.700640
4.854812 4.298930 2.329798 108 92 231 0.732980
-5.283825 0.787618 4.986766 160 231 229 0.998677
-0.226872 0.895260 4.648519 255 107 107 0.964852
-2.633226 -1.438886 -5.463317 78 205 196 -0.046332
3.766387 4.727860 -2.026559 69 183 209 0.297344
-1.281905 -5.337205 4.997143 249 202 36 0.999714
5.211540 2.830771 1.620751 108 92 231 0.662075
-4.856267 -2.920644 -2.048941 160 231 229 0.295106
-4.840866 2.568921 4.616028 255 107 107 0.961603
0.460075 -3.680853 -4.688823 78 205 196 0.031118
-4.057995 5.270904 -3.739688 69 183 209 0.126031
-0.837384 -4.506442 2.354452 249 202 36 0.735445
4.668381 1.917962 -2.477171 108 92 231 0.252283
-5.334092 3.949734 -2.650848 160 231 229 0.234915
-3.393576 1.884505 5.198170 255 107 107 1.019817
2.508244 1.117596 -4.804034 78 205 196 0.019597
4.359490 5.404801 3.276304 69 183 209 0.827630
2.178703 -4.876053 4.519276 249 202 36 0.951928
5.297767 5.016979 0.120690 108 92 231 0.512069
-5.331262 -5.326474 -0.680814 160 231 229 0.431919
-1.228677 -1.938613 4.799379 255 107 107 0.979938
0.590361 1.408763 -4.561166 78 205 196 0.043883
3.462177 5.470196 -3.842074 69 183 209 0.115793
-3.146411 -4.610671 -4.357018 249 202 36 0.064298
4.899048 -4.227954 -4.859245 108 92 231 0.014075
-4.685436 -2.958506 -4.809881 160 231 229 0.019012
-4.106387 3.248284 5.390884 255 107 107 1.039088
1.950883 -0.541912 -5.318769 78 205 196 -0.031877
4.229805 4.891354 4.465599 69 183 209 0.946560
-1.041450 -5.345625 3.571277 249 202 36 0.857128
4.845046 -2.458445 1.195716 108 92 231 0.619572
-5.228500 4.635595 -3.532214 160 231 229 0.146779
4.964190 -2.143621 5.334138 255 107 107 1.033414
2.213423 -5.103986 -4.795603 78 205 196 0.020440
-4.899162 5.279253 -3.678984 69 183 209 0.132102
1.240114 -5.031540 -2.481260 249 202 36 0.251874
5.209454 -3.874617 -0.083686 108 92 231 0.491631
-4.884416 -3.720750 2.250290 160 231 229 0.725029